# .PCD v0.7 - Point Cloud Data file format
VERSION 0.7
FIELDS x y z
SIZE 4 4 4
TYPE F F F
COUNT 1 1 1
WIDTH 880
HEIGHT 1
VIEWPOINT 0 0 0 1 0 0 0
POINTS 880
DATA ascii
0.050000001 -3.3908715 -2.0041504
-0.050000001 -3.3915601 -1.852071
0.050000001 -2.618731 1.4493797
-0.050000001 -2.7116766 0.60971165
0.050000001 -3.2925448 1.4503219
-0.050000001 -2.5290639 -0.004997015
0.050000001 -3.2661247 -1.8584731
-0.050000001 -2.4292839 0.77951646
0.050000001 -3.3404949 2.0171299
-0.050000001 -2.4292402 1.6221118
0.050000001 -2.3664436 -0.12839675
-0.050000001 -3.637063 -0.70616686
0.050000001 -3.6565666 0.26815557
-0.050000001 -3.4369793 -0.37439179
0.050000001 -3.6227255 0.27994275
-0.050000001 -2.6771688 0.81534696
0.050000001 -3.2736983 -1.8517808
-0.050000001 -2.6113338 1.1334414
0.050000001 -2.3681183 -0.27779913
-0.050000001 -3.1655869 -1.177309
0.050000001 -2.6255233 0.57652807
-0.050000001 -2.5062122 -1.8275369
0.050000001 -2.948128 -0.34538186
-0.050000001 -3.284071 -1.2477487
0.050000001 -3.3753934 -1.2228659
-0.050000001 -2.9683051 1.8054147
0.050000001 -3.1722045 2.2420683
-0.050000001 -2.3484979 -1.4245496
0.050000001 -2.7379003 1.2798738
-0.050000001 -2.3678823 -2.2240417
0.050000001 -3.5299025 -1.9123403
-0.050000001 -3.6311915 -2.1530628
0.050000001 -3.1528366 -2.0415893
-0.050000001 -3.1752582 0.88807869
0.050000001 -2.5764537 0.11574697
-0.050000001 -3.452898 -1.4726872
0.050000001 -3.4906611 -0.18028665
-0.050000001 -2.7446809 -1.7352103
0.050000001 -3.468646 0.4794426
-0.050000001 -2.8748956 -0.43372393
0.91318297 -3.6500001 -2.1993029
0.079464495 -3.75 -1.1782297
0.57176232 -3.6500001 -2.1282852
0.42277542 -3.75 2.2185931
0.45766553 -3.6500001 0.36257386
1.2062771 -3.75 1.0117137
1.2206252 -3.6500001 0.64436388
1.0896394 -3.75 -0.4688971
1.0899191 -3.6500001 1.7089455
1.1647134 -3.75 0.10031557
0.62339562 -3.6500001 0.52693796
1.17799 -3.75 -1.6376233
0.57488799 -3.6500001 -1.2107216
1.38534 -3.75 -0.13802004
0.022489071 -3.6500001 2.2301826
0.39006716 -3.75 -2.1737671
0.01828295 -3.6500001 -1.1573337
0.69503409 -3.75 0.057566404
0.67499208 -3.6500001 -1.7293639
0.75862676 -3.75 0.99037957
0.20430487 -3.6500001 0.83331919
1.3396218 -3.75 -0.81005275
1.2909456 -3.6500001 1.5375497
0.25363487 -3.75 -1.3608654
0.46088365 -3.6500001 -1.7419071
0.51556492 -3.75 -1.8409834
0.29413897 -3.6500001 0.64266682
0.73712808 -3.75 1.6217279
1.3853953 -3.6500001 1.2472956
0.20944327 -3.75 -0.76298106
0.050443828 -3.6500001 0.59318066
1.2829418 -3.75 -0.35621309
1.1914142 -3.6500001 -0.96772647
0.22676831 -3.75 -1.9225905
0.98070788 -3.6500001 0.65485191
0.50464606 -3.75 0.46055961
0.16366518 -3.6500001 1.001471
0.24577516 -3.75 -1.3597929
1.35695 -3.6499999 -0.14283419
1.0758731 -3.75 1.4171054
-1.95 -2.9173911 1.515456
-2.05 -2.3235137 -1.2566683
-1.95 -2.6504276 0.97626734
-2.05 -3.2635379 -1.718977
-1.95 -3.3140464 1.0240669
-2.05 -2.8333299 -0.56946301
-1.95 -2.7331221 -0.56248248
-2.05 -3.12743 -0.59093893
-1.95 -3.4156971 0.91507483
-2.05 -3.0185518 -2.0030084
-1.95 -3.3078613 1.2835135
-2.05 -2.5677738 0.56449056
-1.95 -3.0615451 -0.55772579
-2.05 -3.1107988 0.67550087
-1.95 -3.0500269 -0.63108599
-2.05 -3.5823827 1.9223018
-1.95 -3.1379657 2.2375236
-2.05 -2.7689767 -1.2522019
-1.95 -3.1026347 1.9526491
-2.05 -3.3008659 -0.58320749
-1.95 -3.2651503 0.47573328
-2.05 -2.6408525 -0.58013606
-1.95 -2.6265197 -1.9512584
-2.05 -3.5983138 -1.6526401
-1.95 -3.6487164 1.0893328
-2.05 -3.2168365 0.7226038
-1.95 -3.5058265 -0.55459785
-2.05 -3.4851584 -2.0132718
-1.95 -3.5564036 -1.4796685
-2.05 -2.3084359 1.6802359
-1.95 -2.9645274 1.0171723
-2.05 -2.6903927 -0.68269205
-1.95 -3.2410915 -0.7425046
-2.05 -3.5997939 -1.3637429
-1.95 -3.5170193 2.1389208
-2.05 -2.5787606 0.8306272
-1.95 -2.852406 -0.091808558
-2.05 -3.4525855 -0.61349177
-1.95 -2.6652598 -1.3011794
-2.05 -3.5649037 -2.0036483
-1.9705503 -3.6500001 0.79934883
-1.0947295 -3.75 -0.19549346
-1.6145432 -3.6500001 -1.2197888
-1.3517145 -3.75 0.41207051
-1.5525894 -3.6500001 -0.74963927
-1.5996912 -3.75 1.5149617
-0.76545483 -3.6500001 -0.93694401
-1.1568507 -3.75 -0.95962763
-1.0146799 -3.6500001 2.2192883
-0.62344658 -3.75 -1.2041813
-0.79644102 -3.6500001 -0.097555637
-1.8680173 -3.75 -1.0082211
-1.5574642 -3.6500001 0.21049738
-1.2638342 -3.75 -0.63911569
-1.134427 -3.6500001 -0.76203561
-1.4979547 -3.75 1.3374269
-1.9843282 -3.6500001 2.0109
-0.8103807 -3.75 1.6173575
-0.8370201 -3.6500001 0.54745126
-0.98062998 -3.75 -0.32804942
-1.3187009 -3.6500001 -0.16385674
-1.0304224 -3.75 -2.229569
-0.79324996 -3.6500001 -1.2507365
-0.60913777 -3.75 2.1008677
-0.70927602 -3.6500001 0.9040637
-1.7843283 -3.75 1.6178114
-0.78146446 -3.6500001 1.628597
-1.5618991 -3.75 -0.08107686
-1.0115944 -3.6500001 0.4446702
-0.63545632 -3.75 -1.3867815
-1.2512083 -3.6500001 0.69425488
-1.4684851 -3.75 1.15589
-0.85595679 -3.6500001 -1.5141861
-1.1793224 -3.75 1.1826091
-1.623878 -3.6500001 1.1984911
-0.64657617 -3.75 0.69681668
-0.81194687 -3.6500001 -1.5830052
-0.93062019 -3.75 -0.34358835
-1.6672342 -3.6500001 -1.8131028
-1.8222008 -3.75 -1.588167
-3.95 -2.5751681 0.0073103905
-4.0500002 -2.4765851 0.48284531
-3.95 -2.826894 -1.8235821
-4.0500002 -3.5182943 0.61625123
-3.95 -2.4578118 -0.55707479
-4.0500002 -2.3736653 -0.13776922
-3.95 -3.6884265 0.66280627
-4.0500002 -3.2059321 1.9869003
-3.95 -2.5911481 -0.96782219
-4.0500002 -3.0911644 1.196002
-3.95 -3.2540114 -1.927549
-4.0500002 -2.3257074 -1.8323219
-3.95 -2.5053487 -0.53245139
-4.0500002 -2.7505283 1.3028977
-3.95 -2.9548092 -0.4187454
-4.0500002 -2.4402709 -2.1801453
-3.95 -3.3602662 -2.0346675
-4.0500002 -2.3524499 0.020472527
-3.95 -3.5727358 -0.71713221
-4.0500002 -2.8761177 1.3823941
-3.95 -3.2272317 0.92528534
-4.0500002 -2.8275549 0.3697896
-3.95 -2.5820494 0.91657305
-4.0500002 -2.983407 2.2343397
-3.95 -3.3969183 0.88669753
-4.0500002 -3.2000661 -0.019315958
-3.95 -3.1100512 0.92423677
-4.0500002 -3.3763769 -0.73771095
-3.95 -3.5061426 -1.822641
-4.0500002 -3.0280175 -1.0908009
-3.95 -2.7849612 -1.5729642
-4.0500002 -2.7416668 -2.0701594
-3.95 -3.6662207 1.3123615
-4.0500002 -3.5097313 0.094952106
-3.95 -3.2394335 -1.4506915
-4.0500002 -3.6227465 -1.7972275
-3.95 -2.9902668 -0.32182837
-4.0500002 -2.3694518 -0.68289828
-3.95 -2.5737681 -1.2125382
-4.0500002 -3.5760984 -0.38405728
-3.900192 -3.6500001 -0.70432377
-3.2896516 -3.75 1.372462
-3.1690199 -3.6500001 -1.0431617
-3.3991048 -3.75 -1.8667033
-3.997221 -3.6500001 -1.112885
-2.6115866 -3.75 0.61809278
-3.757072 -3.6500001 -1.8149599
-3.459043 -3.75 0.67153645
-3.8079662 -3.6500001 1.3982644
-3.235384 -3.75 0.6168735
-3.1584792 -3.6500001 1.284616
-2.9416921 -3.75 0.19511819
-2.6015973 -3.6500001 -2.1798503
-3.6908963 -3.75 -1.4537838
-3.3013325 -3.6500001 -1.3060627
-2.9588778 -3.75 -0.016665459
-3.8012183 -3.6500001 -0.76940489
-2.7869532 -3.75 0.56082892
-3.8567035 -3.6500001 -0.56938839
-3.9625938 -3.7500002 1.0154181
-3.0540602 -3.6500001 1.9684186
-3.7903876 -3.75 2.2207756
-3.1612701 -3.6500001 0.45996046
-3.7249722 -3.75 -2.0329108
-3.555022 -3.6500001 -0.94482541
-3.3418064 -3.75 -2.0723429
-3.055676 -3.6500001 -0.50447941
-3.8756609 -3.75 -0.48558044
-3.0651433 -3.6500001 -0.85361791
-2.8842123 -3.75 -2.045388
-3.5349452 -3.6500001 2.1133609
-2.7412679 -3.75 -2.1707203
-3.4598823 -3.6500001 1.9066467
-2.6016936 -3.75 1.7428904
-3.0140491 -3.6500001 -0.7438519
-2.703064 -3.75 0.72306681
-2.7508276 -3.6500001 -0.96077609
-3.9922218 -3.75 0.83764052
-2.8636584 -3.6499999 0.54558206
-3.5533745 -3.75 -1.2631752
-5.9499998 -3.0091915 -1.5893395
-6.0500002 -3.4525506 -1.540427
-5.9499998 -3.3455698 0.57826447
-6.0500002 -2.3548977 1.9474368
-5.9499998 -2.8381238 2.0383778
-6.0500002 -2.324681 1.4606814
-5.9499998 -3.0753298 0.91647863
-6.0500002 -3.4756546 -1.5061599
-5.9499998 -3.650358 -1.043529
-6.0500002 -3.1281369 2.0391259
-5.9499998 -3.0039182 -1.2787538
-6.0500002 -2.3453169 -0.17149973
-5.9499998 -3.5899773 2.1145415
-6.0500002 -2.807951 1.4453273
-5.9499998 -2.9883409 -2.0351319
-6.0500002 -3.2633023 -0.14570379
-5.9499998 -2.5722187 0.24346256
-6.0500002 -3.1295772 -2.1888449
-5.9499998 -2.4462085 1.9198418
-6.0500002 -2.5858812 1.2017214
-5.9499998 -3.3977304 2.2355995
-6.0500002 -3.270756 1.1145732
-5.9499998 -3.4610527 -1.9133981
-6.0500002 -2.7451203 0.2801106
-5.9499998 -2.7277277 -0.75659704
-6.0500002 -2.5391915 -1.6674314
-5.9499998 -2.4915214 0.030888081
-6.0500002 -2.4732277 1.2898312
-5.9499998 -3.1902289 -0.44743931
-6.0500002 -2.6250162 1.358345
-5.9499998 -2.4178433 -1.4325953
-6.0500002 -2.4146342 -0.94529772
-5.9499998 -3.2001228 1.4249036
-6.0500002 -3.4361391 -2.1415126
-5.9499998 -3.4258442 0.66767621
-6.0500002 -2.3556376 -1.1712637
-5.9499998 -2.3206515 -1.9313867
-6.0500002 -2.8996196 -1.9007066
-5.9499998 -3.6877477 0.3042953
-6.0500002 -2.9209297 -1.8485004
-4.9081464 -3.6500001 2.0446982
-5.9868569 -3.7500002 -0.93215883
-5.379528 -3.6500001 -1.27847
-5.4632368 -3.75 -1.2083046
-5.8629313 -3.6500001 -1.5632589
-5.9450116 -3.7500002 -0.060922623
-5.6771851 -3.6500001 1.6330526
-4.9845748 -3.75 0.46849442
-5.1219239 -3.6500001 1.4278531
-5.3346529 -3.75 0.88677979
-4.7953367 -3.6500001 0.027481318
-4.680275 -3.75 -2.1744804
-4.9143043 -3.6500001 0.90222883
-4.9714236 -3.75 -1.2670349
-5.8037424 -3.6500001 1.9862332
-5.6033125 -3.75 1.9013195
-5.2039671 -3.6500001 1.198143
-4.9584956 -3.75 0.55282927
-4.7561817 -3.6499999 1.0676653
-4.9731531 -3.75 2.0685401
-5.5340662 -3.6500001 0.9189477
-5.0598102 -3.75 -0.17488384
-4.9689121 -3.6500001 -2.1647863
-4.8619666 -3.75 1.3078535
-5.7275214 -3.6500001 1.8440456
-5.4138498 -3.75 1.7690167
-4.775722 -3.6500001 -1.0718858
-5.8904371 -3.75 0.19583511
-4.6392703 -3.6500001 0.88530827
-4.7371774 -3.75 -0.27079833
-4.7550087 -3.6500001 1.3994021
-5.0650134 -3.75 1.6929102
-5.0778131 -3.6500001 -0.076617718
-5.2471223 -3.75 -1.5971125
-5.9918122 -3.6500001 0.91127062
-5.5349236 -3.75 0.905828
-4.9331999 -3.6500001 1.1536455
-5.1798072 -3.75 -1.9690239
-5.8944559 -3.6500001 0.37870598
-4.75769 -3.75 1.9726458
-6.1978092 0.26851994 1.3130596
-5.3213148 -0.74939585 -0.86974585
-6.7968802 0.86759084 1.2488916
-5.9689536 -0.10175695 2.0627017
-5.2703829 -0.65890622 -1.4006822
-6.9070721 0.83636129 1.4636295
-6.7613277 0.83203846 -0.79213858
-6.3282437 0.25753322 2.0051908
-5.2063246 -0.722965 -1.6638858
-6.1720467 0.10133581 1.2972479
-5.3158317 -0.61345744 -1.8545042
-6.6219687 0.55125797 1.9286604
-5.2164826 -0.71280646 0.95225763
-6.8137908 0.74308026 -0.5859772
-6.0569763 0.12768695 -0.19544029
-5.4072676 -0.66344285 -0.71524358
-5.2343926 -0.69489652 2.133554
-6.9016137 0.83090317 0.66788864
-5.5706882 -0.35860109 -0.3087703
-5.3971329 -0.67357755 2.1100063
-6.0800171 0.15072796 0.53068924
-6.2995005 0.22878991 -0.44388211
-6.1065936 0.17730407 1.5971239
-6.8576665 0.78695595 -1.917737
-5.7690687 -0.16022044 0.46584773
-5.8629003 -0.20781028 -1.9446623
-6.6408534 0.71156406 1.7479455
-5.1968646 -0.87384599 0.16667843
-5.7048802 -0.22440895 0.31590033
-5.8947592 -0.17595133 1.3387065
-6.0635247 0.13423538 1.292423
-6.1022186 0.031508103 0.45009041
-5.7040963 -0.22519319 -1.3395706
-6.5502167 0.47950584 -0.714535
-5.207068 -0.72222126 0.13268709
-6.0238624 -0.046848197 1.618788
-6.4781356 0.54884636 -1.2063838
-6.3057737 0.23506323 0.017176628
-6.6024275 0.6731379 -0.0079357624
-5.5561733 -0.51453716 -1.3369262
-5.9499998 1.8719569 0.50432754
-6.0500002 2.0462472 -0.89755917
-5.9499998 1.8329641 -1.7474194
-6.0500002 2.13746 0.92071629
-5.9499998 2.1315038 -1.1473515
-6.0500002 1.7369181 0.80096722
-5.9499998 2.4257224 1.3585286
-6.0500002 2.5687139 -1.0819484
-5.9499998 3.1686816 -0.9126327
-6.0500002 2.1995816 0.37184834
-5.9499998 2.9495337 1.317919
-6.0500002 3.1093616 0.31738043
-5.9499998 2.4711273 -0.16466832
-6.0500002 1.9988611 -1.3050759
-5.9499998 2.2414951 -0.67877829
-6.0500002 1.8939831 -1.9471473
-5.9499998 3.0481422 0.77575064
-6.0500002 2.0508327 -0.49165606
-5.9499998 2.7562835 -0.99141908
-6.0500002 2.1560731 0.43770647
-5.9499998 2.7572203 1.1858883
-6.0500002 3.0991805 -0.27915835
-5.9499998 2.9603043 0.075313568
-6.0500002 1.8909048 0.93888187
-5.9499998 2.770067 -0.74187779
-6.0500002 2.4499757 -0.51515079
-5.9499998 3.0895257 -2.129282
-6.0500002 2.7325656 -1.8021566
-5.9499998 2.833518 -0.19298863
-6.0500002 1.9682195 1.7938066
-5.9499998 2.6608529 -0.099842072
-6.0500002 2.308619 -1.5267173
-5.9499998 1.7783432 -1.520648
-6.0500002 2.5095389 2.0115743
-5.9499998 2.8392367 0.90235949
-6.0500002 2.3912525 2.1165109
-5.9499998 3.2945096 -1.4606869
-6.0500002 2.051816 -0.77332425
-5.9499998 1.9609877 0.4823873
-6.0500002 2.2879667 0.057261944
-5.9499998 3.6760983 -0.29221892
-6.0500002 3.6237416 1.0521142
-5.9499998 4.3642402 1.2748585
-6.0500002 4.3772635 1.0271983
-5.9499998 4.2686844 -0.72951674
-6.0500002 4.216876 -1.2489606
-5.9499998 4.3347449 1.3222396
-6.0500002 4.1571813 -1.929322
-5.9499998 3.9427161 0.81821132
-6.0500002 3.7396536 -2.0753832
-5.9499998 3.6418395 2.0160046
-6.0500002 4.2887125 2.2427335
-5.9499998 3.7635922 2.200254
-6.0500002 4.15135 1.6651604
-5.9499998 4.1892672 -1.4511178
-6.0500002 4.2546406 1.1904821
-5.9499998 3.6167939 -1.4427414
-6.0500002 3.6140428 1.4282935
-5.9499998 4.2089901 -2.1558175
-6.0500002 4.2706437 -1.689384
-5.9499998 4.1749277 -0.51936793
-6.0500002 4.2085371 0.067809582
-5.9499998 3.715518 0.46792388
-6.0500002 3.9057024 1.7507567
-5.9499998 4.3572516 -0.34018517
-6.0500002 4.2641726 1.8467298
-5.9499998 4.3777223 -0.29171622
-6.0500002 4.3012166 2.1045809
-5.9499998 4.122334 0.80568743
-6.0500002 4.296052 0.38592052
-5.9499998 3.7680423 -1.4472425
-6.0500002 4.086678 -0.63693774
-5.9499998 4.1290007 4.3153763e-05
-6.0500002 4.0914049 0.624681
-5.9499998 4.2958207 1.3409688
-6.0500002 3.8270001 -0.78482032
-5.9499998 3.9067981 2.2013731
-6.0500002 3.9880428 -0.24713326
-5.9499998 4.2356071 -0.92150152
-6.0500002 4.397438 -0.87084341
-5.2574596 4.4500003 -1.0793971
-5.8751078 4.3499999 -1.5386417
-5.2565126 4.4500003 -1.4804802
-5.3982091 4.3499999 -1.0539141
-5.2242651 4.4500003 -1.6938844
-5.747097 4.3499999 1.2530985
-5.6635737 4.4500003 1.4514701
-5.8002067 4.3499999 -1.7831186
-5.9892654 4.4499998 0.41486835
-5.8535447 4.3499999 -0.074080706
-5.2041454 4.4500003 -1.5551989
-5.4696302 4.3499999 -1.8268718
-5.2720647 4.4500003 0.42694426
-5.3072248 4.3499999 2.217371
-5.7211452 4.4500003 0.72777319
-5.4080324 4.3499999 0.48214555
-5.8599648 4.4500003 -0.0050001144
-5.3009124 4.3499999 -2.0617411
-5.2539902 4.4500003 -2.0518503
-5.6573195 4.3499999 -1.044724
-5.3079462 4.4500003 0.98092222
-5.2316055 4.3499999 1.4392769
-5.8684397 4.4500003 2.2282686
-5.9816294 4.3499999 -1.8706107
-5.4478168 4.4500003 -2.004662
-5.4146767 4.3499999 -0.7971406
-5.3608565 4.4500003 -1.8381535
-5.5188818 4.3499999 -0.44850099
-5.499167 4.4500003 -0.83432901
-5.7460828 4.3499999 -1.6998677
-5.2181301 4.4500003 0.075108767
-5.7592568 4.3499999 1.7543225
-5.7370677 4.4500003 -0.96865761
-5.8859997 4.3499999 -1.687237
-5.7158265 4.4500003 -2.2466145
-5.4538231 4.3499999 1.6602416
-5.8766928 4.4500003 0.030347824
-5.4342489 4.3499999 -0.11331177
-5.7985916 4.4500003 -0.97238553
-5.6004205 4.3499999 0.73362303
-3.95 2.8616738 -2.0184734
-4.0500002 2.5001173 0.70470643
-3.95 3.0040185 1.0512536
-4.0500002 2.6286707 1.7995396
-3.95 3.1309552 -1.7825445
-4.0500002 2.2661352 -0.94491327
-3.95 1.9095848 1.7897806
-4.0500002 2.0313702 0.25294113
-3.95 2.2479866 1.5087042
-4.0500002 1.9699583 -1.0954359
-3.95 3.1517696 1.0970626
-4.0500002 3.0449333 1.9503498
-3.95 2.2309666 0.82354045
-4.0500002 2.0622244 -0.13100076
-3.95 2.2299922 1.9831462
-4.0500002 2.2466159 -1.1880295
-3.95 3.1631565 1.6138136
-4.0500002 2.5968165 0.20296741
-3.95 3.260499 -0.013527632
-4.0500002 2.6588931 -1.9491613
-3.95 2.998915 0.32700109
-4.0500002 1.8514023 -0.94364393
-3.95 1.751982 -0.5096451
-4.0500002 3.0281596 -2.0744045
-3.95 2.388936 -0.060529232
-4.0500002 2.0989983 1.5450926
-3.95 2.9108596 -1.2296867
-4.0500002 2.940207 -0.79593396
-3.95 2.5054972 0.45302653
-4.0500002 2.1499159 -1.1510968
-3.95 3.0248437 -1.8620827
-4.0500002 2.9811502 0.69300604
-3.95 1.9559629 0.81921053
-4.0500002 2.9316294 1.0351765
-3.95 2.244046 -0.016643047
-4.0500002 2.5731573 1.6316538
-3.95 1.7217722 2.1172018
-4.0500002 3.2131624 0.91821885
-3.95 2.8035982 1.4672966
-4.0500002 1.8792694 0.48853183
-3.95 3.9785647 1.7106192
-4.0500002 3.7685137 -1.4825847
-3.95 3.6715975 -1.0809988
-4.0500002 3.99368 -1.4758158
-3.95 4.3335528 1.0103157
-4.0500002 3.7895796 -2.142035
-3.95 4.2114735 1.4959652
-4.0500002 4.3859019 -0.95411611
-3.95 3.9657924 1.4249306
-4.0500002 4.1537609 1.5270045
-3.95 3.7193854 1.4792004
-4.0500002 3.7427127 -1.6368148
-3.95 4.126832 -1.2688038
-4.0500002 4.2254353 -1.8837825
-3.95 3.7569177 0.52469993
-4.0500002 4.3350954 0.66064048
-3.95 4.1176338 -0.30867124
-4.0500002 3.8506479 1.5271707
-3.95 4.1945653 1.3460221
-4.0500002 3.6952953 -1.9377768
-3.95 3.7330618 -2.078866
-4.0500002 3.9390864 -0.16120315
-3.95 3.8436151 1.2578163
-4.0500002 3.7277615 -2.0271928
-3.95 3.9326887 -1.7609853
-4.0500002 3.9196637 -0.55613446
-3.95 4.3941326 1.0569236
-4.0500002 3.7788305 1.062876
-3.95 4.3533449 -2.2173507
-4.0500002 3.6595645 1.5067582
-3.95 4.1841717 -0.56595254
-4.0500002 3.8277287 0.95525861
-3.95 3.9098315 -0.9205395
-4.0500002 4.3452878 -1.4623108
-3.95 3.7496867 0.29764938
-4.0500002 3.6423395 1.0467656
-3.95 4.1277075 -0.00076055527
-4.0500002 3.8619645 -0.10312819
-3.95 4.2258244 0.21373653
-4.0500002 3.9602175 1.2811494
-3.4275932 4.4500003 0.88484144
-3.4754438 4.3499999 -0.21878982
-3.3804555 4.4500003 1.0556474
-3.7860415 4.3499999 -1.5809754
-3.750402 4.4500003 -2.2439253
-3.8955255 4.3499999 -1.0722222
-3.6274755 4.4500003 -1.6958914
-3.5877976 4.3499999 1.0193033
-3.6625719 4.4500003 -1.5871749
-3.2603781 4.3500004 -1.9776826
-3.519377 4.4500003 -0.13282871
-3.9169118 4.3499999 0.96077728
-3.2241521 4.4500003 -0.33721757
-3.625164 4.3499999 -0.40241313
-3.6848826 4.4500003 -1.5052373
-3.9932458 4.3499999 1.2499678
-3.5439193 4.4500003 -1.7890948
-3.7417481 4.3499999 -0.81871855
-3.2188509 4.4500003 -0.2234273
-3.553025 4.3499999 -2.0895023
-3.7659895 4.4500003 0.52564001
-3.2197585 4.3499999 1.0491679
-3.4655547 4.4500003 -1.7714498
-3.2924778 4.3499999 2.1290097
-3.5777335 4.4500003 1.5689816
-3.3949564 4.3499999 0.94775081
-3.9389498 4.4499998 1.3069797
-3.402983 4.3499999 -0.38508403
-3.8651457 4.4500003 -0.36110008
-3.6067929 4.3499999 1.7066126
-3.6685851 4.4500003 -1.2926527
-3.7722244 4.3499999 -0.50544608
-3.9991417 4.4500003 0.99186325
-3.7852807 4.3499999 2.1010613
-3.3065031 4.4500003 -2.1632147
-3.2533269 4.3500004 0.0044355392
-3.6624694 4.4500003 -0.73922455
-3.2820716 4.3499999 1.8165474
-3.8751721 4.4500003 -1.2502797
-3.8478532 4.3499999 0.097274542
0.75425863 3.6222637 0.15602064
0.90567958 3.4193707 1.8615394
0.91800439 3.527725 1.8792143
-1.0319353 4.538053 0.62609291
-0.41305423 4.2962122 -0.53464282
0.091623314 3.8893661 -0.98692226
0.073408432 4.0153527 -1.9735577
0.61997396 3.5843229 -0.69781137
-0.99421591 4.6317458 -1.5651356
0.038850397 3.9198346 1.4624197
0.45501217 3.7950337 -0.21986341
0.99978787 3.3650372 1.0955093
1.2285182 3.3484497 -1.6671081
-0.077011026 3.9867272 1.8860054
0.30100453 3.88395 2.0728579
0.24663217 3.7998719 -2.1510961
-0.96892685 4.6171451 -0.87060618
-0.46637398 4.2115259 -1.2141807
-0.49978265 4.3462849 1.1500213
-0.13101196 4.0179048 -0.77457702
0.7795217 3.6076779 -0.92861938
-0.32157734 4.1279278 -0.062086344
0.11956047 3.9887068 -1.9628526
-0.46724012 4.2120261 1.2919178
-1.1936865 4.7469101 -0.63362813
0.53784603 3.6317394 -1.3278084
-0.42509139 4.3031616 -0.27439284
-0.48808643 4.224062 -1.578848
-1.1933417 4.7467113 -1.28425
-0.48257515 4.22088 2.1310344
0.30357164 3.8824677 0.27548146
0.12156459 3.8720796 -0.38315904
-0.048729055 4.0858688 -0.57992935
0.44459718 3.6855767 -0.20433831
1.0373305 3.4588318 0.75333166
-0.34645197 4.1422892 0.97194958
0.71100456 3.6472363 2.1501942
-0.017412195 3.952318 1.0118098
-0.72027665 4.473587 -0.38413811
-0.13536233 4.0204163 0.93283701
2.05 -2.3347068 -0.73878586
1.95 -1.2881427 -1.3136077
2.05 -3.1764989 -1.4911735
1.95 1.0317645 -0.41258168
2.05 -0.084069252 -1.1831833
1.95 -4.1854525 1.5945673
2.05 0.40033817 0.72023296
1.95 0.9174037 2.2439871
2.05 4.7482605 -2.1148086
1.95 3.9790983 0.23169303
2.05 0.599617 1.4418125
1.95 -2.8222175 1.9191113
2.05 1.7801194 1.572504
1.95 1.3851376 2.2370381
2.05 0.20156717 -1.5714068
1.95 1.0997915 1.9085064
2.05 1.8497281 0.31356621
1.95 2.4467692 2.1977081
2.05 -0.32206154 -0.29159689
1.95 3.4917154 1.6239572
2.05 5.0218306 0.79291582
1.95 1.875566 -0.71645033
2.05 -4.2330241 -0.38594818
1.95 1.5014205 0.92990708
2.05 2.0902357 0.39443159
1.95 3.2321692 -1.307864
2.05 3.3685474 -0.19484186
1.95 -0.95680189 0.75607443
2.05 0.023692608 -2.0113175
1.95 -0.45925522 2.1154323
2.05 -0.66578937 -0.99149299
1.95 1.1964226 -1.5389829
2.05 4.9571323 2.1490455
1.95 -1.6723077 0.46448064
2.05 0.58187008 0.011782885
1.95 2.6885128 -1.8069563
2.05 -3.7777734 1.0502515
1.95 5.0839643 1.559473
2.05 2.3393383 1.2086527
1.95 -1.4888844 1.6931698
-4.2137799 5.5499997 -1.5095172
-1.2500495 5.4500003 0.00022101402
-3.0163121 5.5500002 -0.63616312
-6.5918097 5.4499998 1.8705668
0.62348723 5.5500002 -1.106154
-3.1167669 5.4499998 0.026242256
-0.96245456 5.5500002 1.1231382
-7.6551247 5.4499989 2.2398167
1.2193427 5.5500007 -0.5977211
-5.0559845 5.4499998 -2.0190144
0.14299178 5.5500002 2.2173848
0.4223156 5.4500008 -1.916079
-3.8934174 5.5499997 0.51891494
-2.1351259 5.4500003 -1.9465336
-6.4101195 5.5499992 1.8301325
-7.4820342 5.4499993 1.7393954
-4.0486484 5.5499997 -0.20372629
1.1135244 5.4500003 2.0837536
-7.6774082 5.5499992 1.802321
0.54324031 5.4500008 1.4336829
-0.19439983 5.5500002 -0.55457616
-5.3356724 5.4499998 -1.6741506
-4.6215715 5.5499997 -1.9593188
-1.5327977 5.4500003 1.6888998
-6.2635665 5.5499992 0.32995009
-1.1208146 5.4500003 0.33704138
-1.9726762 5.5500002 -1.5583067
-4.3526459 5.4499998 1.6983464
-1.7889608 5.5500002 1.7649465
-3.0015411 5.4499998 -1.7695305
-6.0822272 5.5499992 -1.8406683
-4.4874897 5.4499998 1.3398387
-4.4290953 5.5499997 0.10874295
-6.9827528 5.4499998 -0.54475558
-5.2401218 5.5499997 -0.84922898
0.53236914 5.4500008 -0.12593484
-0.87336707 5.5500002 0.66662955
-4.6235466 5.4499998 -1.0425578
1.7311482 5.5500007 -1.3728583
-2.9036283 5.4499998 1.6198583
-7.9499998 5.1106768 2.2079535
-8.0500002 2.3103004 0.73902631
-7.9499998 0.69584894 -1.927763
-8.0500002 2.9550529 0.73395634
-7.9499998 2.6158943 0.93154359
-8.0500002 5.3741398 0.82853556
-7.9499998 0.70800114 -0.15421581
-8.0500002 4.8971977 -1.8577689
-7.9499998 2.0241308 1.6616697
-8.0500002 -2.7886252 -1.7688154
-7.9499998 3.4258137 -0.86714959
-8.0500002 0.015330315 1.8664412
-7.9499998 -4.204689 1.8687382
-8.0500002 -2.7434087 -0.76717794
-7.9499998 -1.3698213 -0.8873589
-8.0500002 -4.4991565 1.761632
-7.9499998 2.2414474 -0.36890674
-8.0500002 0.74152565 -0.67364132
-7.9499998 -3.2982514 -0.30640268
-8.0500002 -3.4627423 1.2545495
-7.9499998 -1.1764898 -0.8131882
-8.0500002 0.053731441 1.4575949
-7.9499998 4.9784594 -0.1969409
-8.0500002 2.7952943 -0.24144506
-7.9499998 3.4586868 -1.3448069
-8.0500002 3.6080475 -1.5089309
-7.9499998 4.6388903 -1.3667305
-8.0500002 -3.1370275 1.0486622
-7.9499998 1.4056692 1.1162555
-8.0500002 -1.4281588 0.71429372
-7.9499998 -2.3214555 1.5456197
-8.0500002 4.0182037 -0.091474771
-7.9499998 4.0791607 0.20545673
-8.0500002 -3.3173862 2.2331638
-7.9499998 -2.1610289 0.5351522
-8.0500002 4.370554 -1.760859
-7.9499998 -0.76392317 1.0821939
-8.0500002 3.2696157 -1.2387847
-7.9499998 1.4170203 -0.48164976
-8.0500002 2.110909 1.0637963
-1.7461203 -4.4499998 1.3847466
-0.96152687 -4.5499997 -1.7808304
-4.3967838 -4.4500003 -0.27707934
-3.4308157 -4.5500002 -1.9170468
-5.1523285 -4.4500003 0.32617164
-3.3724146 -4.5500002 1.8787808
-6.1456704 -4.4500008 -0.37395644
0.89796329 -4.5499992 -0.32220232
-1.3535532 -4.4499998 -1.3778628
-2.3389215 -4.5499997 -0.82146108
0.23020983 -4.4499998 -0.33503616
1.0885396 -4.5499997 -0.057139158
-6.6698241 -4.4500008 1.7661481
-4.6140413 -4.5500002 -0.57534206
-7.0988736 -4.4500003 -1.2615074
-5.1322951 -4.5500002 -0.10864758
-7.2191138 -4.4500003 -1.1335218
-6.4912624 -4.5500002 0.28336835
-4.1849766 -4.4500003 -1.0540826
1.0438919 -4.5499997 -1.8413947
-3.9968147 -4.4500003 1.9435921
1.4881043 -4.5499997 1.5619075
-0.8133986 -4.4499998 -0.70235515
-0.69045544 -4.5499997 -0.0932374
-5.1020727 -4.4500003 1.570384
-3.2933955 -4.5500002 -0.21151114
-7.1310992 -4.4500003 0.49222684
-1.2151341 -4.5499997 0.61924767
1.907732 -4.4499993 0.79346657
0.37584305 -4.5499992 -1.9109906
-7.0354285 -4.4500003 0.99746037
-3.7184482 -4.5500002 1.5497308
-3.2985168 -4.4499998 2.2297935
-3.4175396 -4.5500002 -1.2749933
-3.6360016 -4.4500003 -1.0851557
-7.4316678 -4.5500007 -0.32090831
1.9926686 -4.4499993 1.3651011
-2.5664062 -4.5499997 -0.79709017
-1.0951765 -4.4499998 1.1662486
-0.45567489 -4.5499992 -1.9626433
-1.7767085 0.35290909 -2.3000002
-5.1577945 4.4513397 -2.1999998
-2.8366714 -4.4341269 -2.3
-0.87131715 -2.7286315 -2.2000003
-6.6111593 -2.246932 -2.2999995
-0.68757582 5.4032812 -2.2000005
-3.5505128 -1.9730871 -2.3
1.8268313 5.0482702 -2.2000003
-0.22550082 1.5106711 -2.3000002
-6.645381 2.5818429 -2.1999998
-3.4680104 4.6474514 -2.3
-6.788259 1.2369986 -2.1999996
-6.267241 -2.0120261 -2.2999995
-2.6219926 3.6659498 -2.2
-2.8727713 -1.1708994 -2.3
-5.8050241 -3.5380983 -2.1999996
-1.3204815 -1.8417947 -2.3000002
-1.5407218 -3.4144695 -2.2000003
-3.4890199 1.5392799 -2.3
-5.8292551 -0.78846645 -2.1999998
1.7431707 -1.0377789 -2.3000011
1.5490537 -3.5672607 -2.2000003
-1.452257 3.4146662 -2.3000002
-6.2108588 -4.3947663 -2.1999996
0.65864921 1.4136443 -2.3000007
-7.3804727 -2.0989995 -2.1999993
-4.386868 1.4158282 -2.2999997
-0.67018294 -2.2653131 -2.2000003
0.38136816 1.1381273 -2.3000004
-7.9940505 -4.4955144 -2.1999993
-2.6122637 -2.8095772 -2.3000002
-7.0657973 -3.3447435 -2.1999993
-1.60261 -3.5689192 -2.3000002
0.6770246 0.25117588 -2.2000008
-4.9918871 2.8609371 -2.2999997
-2.7335167 -0.7135644 -2.2
0.62538743 2.391819 -2.3000002
-7.1965852 -1.4966934 -2.1999993
-1.4233946 -1.4903755 -2.3000002
-5.2416344 5.3581648 -2.1999998
-3.6498852 -2.123261 2.2
-2.1472807 2.1618276 2.3
-2.6650147 0.59536457 2.1999998
-0.21228576 3.6047173 2.2999997
-2.0163021 3.509284 2.1999998
-5.965332 2.1698732 2.3000004
-7.4447637 -2.6392365 2.2000003
-4.1459551 0.43202734 2.3000002
-5.4165692 5.2302513 2.2000005
-1.6677936 0.89285946 2.2999997
-0.20699263 2.5642395 2.1999996
0.66791773 -2.8112411 2.2999995
-5.0298057 -4.4386683 2.2000003
-7.1990795 -3.4227881 2.3000007
-3.300611 -1.869534 2.2
-7.7578521 5.2843304 2.3000007
-2.756391 4.8345947 2.2
-1.4725873 1.7236018 2.2999997
-7.9265122 0.62378645 2.2000008
-2.5184903 3.2338285 2.3
-5.5484114 -0.64607716 2.2000003
-5.1173859 3.5982285 2.3000002
-1.0794184 -0.29133892 2.1999998
-3.0359292 -3.3595252 2.3
-0.038962603 -3.3468418 2.1999998
-6.8680744 -0.21153641 2.3000007
-1.7926795 1.9297314 2.1999998
-3.5083213 -2.8534737 2.3000002
-4.8332872 -1.5504785 2.2000003
-5.393384 4.8965673 2.3000002
0.112288 -1.2809038 2.1999996
-4.6536698 -2.7289701 2.3000002
-2.299912 -3.1189997 2.1999998
-7.528121 -3.6181097 2.3000007
-6.0723715 3.163147 2.2000003
-3.4933567 -1.3484802 2.3000002
-0.4040103 1.285399 2.1999996
-2.800446 4.4034777 2.3
-7.2491398 5.2174721 2.2000003
-6.4469242 -1.9425311 2.3000004
